# .PCD v0.7 - Point Cloud Data file format
VERSION 0.7
FIELDS x y z
SIZE 4 4 4
TYPE F F F
COUNT 1 1 1
WIDTH 1466
HEIGHT 1
VIEWPOINT 0 0 0 1 0 0 0
POINTS 1466
DATA ascii
1.5658671 -2.3782661 -0.14131799
2.4360392 -1.7007006 0.73114634
2.4430051 -1.6035368 0.73091328
2.4545887 -1.5017546 0.73876661
-1.7541482 -1.3884374 0.73767209
2.4537511 -1.3587059 0.73939735
0.66578609 -1.6070895 -0.14131731
2.4519119 -1.330621 0.73178118
2.4507532 -1.3074663 0.73502052
2.4473596 -1.2444789 0.73741305
-1.7436256 -1.2205225 0.73781145
-1.7395238 -1.1838799 0.73231101
2.4344745 -1.1512071 0.73066002
2.4351065 -1.1354324 0.73841041
0.64902282 -0.44315705 -0.14131723
2.4287472 -1.1005585 0.73691523
-1.7025328 -0.95035446 0.73042607
2.4033504 -0.90798628 0.7311393
2.3998876 -0.86913848 0.7305482
-1.6873655 -0.76588863 0.73385578
-1.6830076 -0.71664125 0.73404396
2.3865645 -0.70284337 0.7315557
-1.6777461 -0.64575642 0.73669767
2.3801179 -0.61388904 0.73369783
-1.6732774 -0.59405893 0.73714542
-1.388643 -2.3350594 0.59186524
2.3730457 -0.5334152 0.73271185
1.9078724 -2.5435195 0.39242899
2.3632998 -0.3641274 0.73979253
-1.6485066 -0.28890073 0.73611534
2.3558242 -0.28762522 0.73094857
0.15796863 0.64736563 -0.1413177
2.3521791 -0.17789859 0.73682076
2.3365347 -0.11830448 0.73264825
-1.2102585 -2.9056692 0.7030338
-1.4802909 -1.4166808 0.30829167
-1.5397228 0.20031828 0.73926604
2.2420964 0.21499234 0.73110175
2.2403576 0.22168705 0.73145962
1.9789652 -0.28820276 0.0074760616
-1.4825413 0.39695328 0.73666394
2.1857097 0.42551568 0.73118788
-1.469409 0.44442591 0.73282951
2.1696565 0.49578366 0.73369157
2.1663344 0.51724225 0.73901904
-1.4499615 0.52693969 0.73590231
2.161757 0.53139067 0.73563898
2.0779419 0.73895478 0.73436266
1.4779471 -2.5301735 -0.14131799
1.9860651 0.93756878 0.73175526
1.9602727 0.99564576 0.73369581
-0.36346012 -1.0242708 0.29597926
1.9034482 1.1146146 0.735098
-1.1420432 1.2012343 0.73184443
-1.3259056 -0.74014324 0.030770756
-0.22950219 -3.6124954 0.30352062
1.6720755 1.4413872 0.73928034
-0.94050097 1.4597831 0.73759335
-0.92511261 1.4740499 0.73261219
1.1076875 -1.6314869 -0.14131753
-0.87851977 1.5330021 0.73960739
1.3537295 1.7719526 0.73932898
0.20400141 -3.5709982 0.15660708
-0.56845301 1.8019171 0.73145849
1.1168374 1.8817546 0.73835057
1.0743083 1.8979895 0.73236662
0.87026757 2.0098445 0.73564821
0.88314909 2.0050094 0.73039484
-0.14982472 2.0110841 0.73284936
1.5155699 1.6041411 0.71096098
0.16874197 2.0705428 0.73505193
0.19860068 2.0763254 0.73572302
0.30228725 2.09741 0.73887116
0.33365944 2.0996978 0.73060894
0.7501623 0.84303236 0.29704845
0.36458167 2.1052248 0.7303862
0.2501173 -4.0171142 0.74304259
2.1136441 -0.60905635 0.17039335
-1.0456716 0.33697683 -0.051323473
0.12155633 -3.9946442 0.74813026
0.098815925 -3.9871831 0.74307668
-0.86697572 -0.78635037 -0.14131778
-0.20317949 -3.9304841 0.74830651
-1.0395095 -0.15557745 -0.14131798
-0.15089315 -3.9364529 0.74083453
0.93774486 -3.9017844 0.74585104
-0.25395384 -3.8971679 0.74529588
0.99064839 -3.8676782 0.74287027
1.0065092 -3.859103 0.74460995
-0.34703144 -3.8412251 0.74803251
1.1042193 -3.8020132 0.74852562
-0.47815424 -3.7593722 0.74705184
-0.5165413 -3.7368455 0.74904639
0.81167191 0.079042681 -0.1413175
-0.61634243 -3.6736317 0.74684846
-0.86900747 -0.81828439 -0.14131778
-0.71745521 -3.6003327 0.74020398
-0.75182861 -3.5649188 0.74565607
1.4831355 -3.5196877 0.74271786
-0.80699718 -3.4986823 0.74160922
-0.83969837 -3.4642017 0.74572122
0.12480304 -1.6753695 -0.14131731
0.78809571 -2.9369776 -0.14131792
-0.2249077 -1.7173644 -0.14131746
1.6180732 -3.3697698 0.74620479
1.6465056 -3.3378 0.74641657
-0.48801255 1.1231461 -0.074795485
1.7533565 -3.2177339 0.74731946
-1.4362258 0.52130598 0.69227427
-1.1125145 -3.1532862 0.74836028
1.8282671 -3.1323285 0.74763244
1.847595 -3.0837731 0.74388534
-1.1784639 -3.0306015 0.74967092
-0.30223781 -1.779825 -0.14131752
-1.2133006 -2.9481115 0.74925518
-1.2311883 -2.9013686 0.74495399
-1.2341094 -2.8974442 0.74770766
1.6423558 1.1730915 0.33215508
1.9797461 -2.779217 0.74426663
-1.2898802 -2.7648225 0.74651867
-1.323669 -2.6816041 0.74312466
0.8783645 -3.5852017 0.25703499
-0.008284077 0.25852078 -0.14131755
-1.3916942 -2.5182509 0.74403101
2.1017451 -2.4963868 0.74914855
-0.35054353 -1.0408268 -0.14131741
-1.4149716 -2.4591777 0.74453396
-1.424976 -2.4336066 0.74460512
2.1861532 -2.3205009 0.7479378
2.193944 -2.3086753 0.74820751
2.1442189 0.56260353 0.70669949
2.2169132 -2.2774754 0.74540949
2.2714796 -2.218461 0.74641186
2.2807183 -2.2050517 0.74641305
2.3174911 -2.1151564 0.74947798
-0.11942489 -3.5178804 0.16658218
2.3649573 -1.9904946 0.74631041
-0.016673557 -0.21832757 -0.14131735
2.4371438 -1.7740381 0.7471469
-1.7489718 -1.6305509 0.74852675
2.4500573 -1.5968916 0.74332047
2.4548457 -1.5335695 0.74363863
2.4448352 -1.1907032 0.74937785
-1.728603 -1.0799762 0.74900323
2.4135273 -0.96651119 0.74372494
2.4061289 -0.84733486 0.74951577
2.4017851 -0.80457366 0.74761087
-1.6926912 -0.78376925 0.74260873
-1.6891638 -0.75185287 0.74107373
2.3875954 -0.66562736 0.74124223
-1.6828749 -0.64816022 0.74827319
-0.020275414 0.28280723 -0.14131756
-1.661948 -0.42465851 0.74642003
2.3630753 -0.35532746 0.7404412
-1.6492761 -0.23502831 0.74674934
-1.6438389 -0.14510046 0.74942946
2.3438749 -0.12279956 0.74759114
1.8240861 -1.4957119 -0.14131798
-1.1263134 -0.36643261 -0.14131799
1.7231983 -0.78254145 -0.14131789
2.2921004 0.064177379 0.74968702
2.2788172 0.097969405 0.74040806
-1.5684505 0.10289817 0.74056929
2.273788 0.11618729 0.74064976
-1.5643471 0.12728755 0.74782473
1.9047177 0.94954664 0.5604229
-1.5365927 0.2257745 0.74966782
-1.5260695 0.25372669 0.74369591
0.0047343969 0.19077431 -0.14131752
-1.474202 0.44354647 0.74601477
-0.6883297 -2.6837206 -0.1404177
-1.4400946 0.57873559 0.74457788
-1.4154924 0.64406276 0.74745852
0.49809963 -2.7810454 -0.14131781
2.0853231 0.73536384 0.7488147
-1.3335608 0.81852353 0.74600917
-1.1533875 0.81926513 0.34158885
-1.3206059 0.84763426 0.74756515
2.0152085 0.88752103 0.74750108
-1.294999 0.90287495 0.74794841
-1.2856724 0.92114049 0.74591815
0.38000646 0.7258718 -0.14131771
1.8005345 1.296427 0.74768186
1.7457564 1.3595752 0.74595183
1.7503575 1.3530509 0.74440229
-1.0120237 1.3823955 0.74522328
0.31410468 -1.3731389 -0.14131713
-0.97768843 1.4210893 0.74372286
-0.94341314 1.4584492 0.74045062
1.6249056 1.4977366 0.74053025
1.6026804 1.5304681 0.74970686
-0.86697292 1.5489998 0.74328589
1.5704534 1.5619466 0.74080771
-0.72322959 1.7162163 0.74745089
-0.71157128 1.7309972 0.74966067
1.3836787 1.7633469 0.7482636
-0.64148694 1.7766879 0.74511582
-0.49065042 1.8457916 0.74539262
1.1967323 1.8470381 0.74254751
1.0817115 -0.50210047 -0.14131746
-0.44161141 1.8693144 0.74725246
-1.2903003 -2.3624446 0.41274476
-0.2682876 1.6656818 0.26310498
-0.19448854 1.9974 0.74220175
0.91999233 1.9946798 0.74310732
0.76626283 2.0360439 0.74963784
0.79353213 2.0303595 0.74859315
0.079203755 2.0602987 0.74877346
0.10761918 -0.52919102 0.35390791
0.18310612 2.0765784 0.74258912
0.54583013 2.0779419 0.74910843
0.55514908 2.0720837 0.74008179
0.39335832 2.1079175 0.74919611
0.3723129 2.1104674 0.74557698
-0.40721393 -0.0039469525 -0.14131761
0.57845682 -3.9959636 0.75319046
0.67332542 -3.9814701 0.75927877
-0.13594946 -3.9503036 0.7594434
-0.19730812 -3.934263 0.75277686
0.91402674 -3.9247494 0.75943595
0.95172656 -3.9011052 0.75836515
1.8461672 -0.71229321 -0.14131798
-0.43947893 -3.7880292 0.75451297
1.1290237 -3.7883267 0.75080669
-0.45709118 -3.7789812 0.75747353
-0.49143162 -3.7548933 0.75300473
-0.54052031 -3.7258034 0.75510615
-0.71569717 -3.6129632 0.7546581
1.4245296 -3.5922456 0.75142795
0.26090479 -3.0820341 -0.14131793
-0.80657679 -3.5115082 0.7584188
-0.80902243 -3.5096221 0.75966907
1.5426612 -3.4649379 0.75988901
-0.9035514 -3.395443 0.75180149
1.6310483 -3.3621917 0.75592923
1.633811 -3.3561261 0.75188625
1.6584005 -3.3335142 0.758986
0.39012992 -2.5866859 -0.14131771
-0.98609728 -3.304841 0.7573269
1.9426043 -2.4831302 0.55749613
1.7310443 -3.2501173 0.75717151
1.7661343 -3.2074099 0.75296736
-1.0811059 -3.195688 0.75705302
-1.0913005 -3.1831279 0.75586867
-0.85381985 1.0339065 0.1654247
-1.0672603 -0.80470932 -0.14131793
-1.1650597 -3.0705519 0.75748086
1.8666499 -3.0566809 0.75988591
1.8732027 -3.041147 0.75949502
-1.1798054 -3.0315211 0.75347149
1.9081776 -2.9536006 0.7530148
-1.2204416 -2.940475 0.75780952
-1.2262843 -2.9246695 0.75590336
-1.2917068 -2.7713828 0.75663954
-1.2883904 -2.7779088 0.75544274
1.7379906 -1.7287782 -0.14131798
-1.3437077 -2.6426041 0.75075835
2.0564704 -2.6109138 0.75256002
1.8443408 -2.204659 0.099339597
2.1119015 -2.4736924 0.75142056
-1.4308575 -2.4314828 0.75493068
-1.0845051 -1.8032303 0.30602831
2.1888702 -2.3246369 0.75759321
-1.5027781 -2.2951798 0.75589627
2.2013831 -2.2997851 0.75124449
0.38843805 0.2838904 -0.1413175
-1.6647427 -1.9892075 0.75022286
-1.6937506 -1.9190189 0.75976616
2.4265528 -1.8330634 0.7597577
-1.74094 -1.7555122 0.75090319
2.4489441 -1.6862241 0.75353199
2.4496255 -1.6575053 0.75086045
2.4548028 -1.6124467 0.75443077
-1.7557875 -1.6099124 0.75885266
-1.7578579 -1.5745223 0.75838101
-1.762573 -1.5098094 0.75934052
-1.7591175 -1.5081532 0.75253719
1.6404186 -3.0380113 0.33395258
-1.7566693 -1.4208128 0.75072694
-1.756483 -1.4128735 0.75901139
2.4508975 -1.2961723 0.75547731
1.1984982 0.51801425 -0.14131783
-1.7387681 -1.1340535 0.75281215
-1.7291319 -1.0805043 0.75005412
-1.7299113 -1.0675524 0.75726992
2.4232998 -1.0227653 0.75456661
-0.45825124 -0.94295126 -0.14131747
2.4010715 -0.76678503 0.75329614
0.38045856 1.7064816 0.13816369
2.3949304 -0.6722337 0.75724995
-1.6873416 -0.65662891 0.75700045
-1.1332538 -0.6898948 -0.14131798
2.3856871 -0.59025109 0.75143921
0.81589574 -2.6548743 -0.14131781
2.380455 -0.51045036 0.75466079
2.3815784 -0.49853095 0.75963414
2.3740218 -0.44568598 0.75211877
-1.6512518 -0.23733023 0.75155967
-1.6504763 -0.21336722 0.75335997
2.3126321 0.0042832047 0.75872314
1.3000016 0.19387136 -0.14131778
1.3871152 0.74807084 -0.14131799
2.261009 0.17892316 0.75265068
-1.0138016 -1.5527296 -0.14131793
2.2214127 0.31660226 0.75057167
-1.5106175 0.32556316 0.75680292
-1.495913 0.37974757 0.75920379
2.2007375 0.40395549 0.75959116
-1.4739242 0.4571158 0.75493681
-1.4548957 0.53323311 0.75463384
-1.4402175 0.59520125 0.75673079
1.3245821 -3.5563357 0.57073641
2.0946519 0.71644199 0.75051314
-1.3228027 0.85307539 0.75944597
-1.3033404 0.89042383 0.75431132
1.5690591 -2.7642057 0.071219787
0.33239356 0.75474137 -0.14131773
-1.5432458 -1.8554487 0.46784344
1.8916246 1.1583143 0.75725549
-1.1135627 1.2693652 0.75161928
0.22958094 -0.47312641 0.30764583
1.7013829 1.4176761 0.75420231
1.9226865 0.3681308 0.15628348
-0.9451434 1.4671574 0.75546145
1.5748736 1.5668538 0.75484407
1.5373235 1.6108477 0.75463921
1.4744554 1.6813987 0.75196224
1.419822 1.7497094 0.75966942
1.969291 0.95563197 0.71031857
-0.68577951 1.762912 0.75595355
-0.54706728 1.8241007 0.75225282
-0.90863526 0.49668205 -0.11000675
1.1595695 1.873347 0.75756329
1.1503134 -3.5452495 0.38354522
0.86714512 1.1178468 0.5152154
-0.21311247 1.9930911 0.75674343
-0.19468784 2.0040243 0.75613523
0.82387114 2.025872 0.75149828
0.29284519 -0.22110808 0.30901024
0.27721304 2.0976179 0.75005025
0.3654252 2.1173165 0.75788403
0.42072743 -4.0343819 0.76755786
0.54250973 -4.0105009 0.76635176
0.57721907 -4.0021992 0.7634508
0.586761 -4.0013027 0.76502323
0.59211671 -3.9992435 0.76324445
0.6104371 -3.9955781 0.76293898
0.65078914 -3.9893804 0.76547158
-0.11071883 -3.9612734 0.76965553
-0.14313175 -3.9504254 0.7620787
-1.6244345 -1.8966906 0.62212789
0.85951835 -3.9482946 0.76311696
-0.23682229 -3.9184489 0.76224494
1.0362036 -3.854641 0.76636964
-0.82982475 1.1948525 0.26463461
2.4091048 -0.99021256 0.7286762
1.3551762 -3.6573439 0.76170927
-0.7289809 -3.6034117 0.76239502
-0.82817066 -3.4892876 0.76188004
1.5239689 -3.4868126 0.76092654
-0.84081769 -3.4779429 0.76618135
-0.87206894 -3.4440851 0.76887673
1.5650331 -3.4431334 0.76465678
-0.99598092 -3.2966008 0.76154006
0.4862901 -2.6431508 -0.14131774
-0.31245017 1.5218194 0.16234261
-1.0844359 -3.1950648 0.76140487
-1.1148624 -3.1592035 0.76008409
0.38880599 -1.9060742 0.31608114
-1.1604167 -3.0921257 0.7673943
1.684432 -2.5824282 0.12226158
1.8854961 -3.0152037 0.76179439
-0.54875815 0.3119638 -0.14131778
-1.2392744 -2.9034557 0.76464236
1.9627894 -2.8395038 0.76432127
2.0189891 -2.7112694 0.76570076
-1.3662282 -2.6051257 0.76525629
-1.3736923 -2.5886188 0.76625454
2.1083751 -2.5008011 0.76623839
-1.3737988 -0.57285035 0.12224978
-1.0120237 1.3823955 0.74522328
2.2374785 -2.2698555 0.76305872
-1.5679731 -2.2242992 0.76011252
-1.3426087 0.1379616 0.25119895
2.2800045 -2.2073889 0.762712
-1.6487565 -2.0377638 0.766689
-0.029291645 -2.4946549 -0.1413177
2.4279423 -1.8388667 0.76517618
0.020144485 1.8630756 0.33954164
-1.7504377 -1.7473507 0.76577204
2.4549952 -1.7094266 0.76816291
2.4556577 -1.6697682 0.76394725
-1.7623833 -1.598735 0.76993597
-1.7608001 -1.5587775 0.76199138
2.463582 -1.543787 0.76155269
-1.748347 -1.2774695 0.76842201
-1.7431304 -1.1964427 0.76479459
-1.7389445 -1.130915 0.76273704
-1.7363133 -1.0877936 0.76466733
2.434819 -1.0693623 0.76382285
2.4200435 -0.92608684 0.76697248
-1.6893891 -0.65617192 0.76192242
-1.67294 -0.43631142 0.76984787
2.3708739 -0.36001921 0.76023048
2.3719063 -0.34904674 0.76448119
-1.660156 -0.30231297 0.76450455
1.5855879 0.19595096 -0.14131795
2.2646506 0.19047427 0.76960444
-1.5360702 0.25290459 0.76765913
2.1743917 0.52592254 0.76831949
2.1680331 0.54474342 0.76304567
2.1572611 0.58881235 0.76258194
-1.3962362 0.69659817 0.76061392
-1.3925908 0.70825058 0.76510227
0.45564148 -0.86738467 -0.13961004
-1.3214154 0.8619104 0.76630437
-1.3037571 0.89488578 0.76057875
1.9850228 0.96515018 0.76089841
-1.2352815 1.0424153 0.76138169
-1.0165057 -2.1746233 -0.095613316
1.8798103 1.1914874 0.76812297
1.4733247 -2.9073133 0.097123116
1.8319347 1.270602 0.76308507
0.8405112 -1.6868405 -0.14131743
-1.0432049 1.3572339 0.76056755
1.7540057 1.3635726 0.76497805
1.7447155 1.3763163 0.76751029
1.7173882 1.4036272 0.76082325
-0.97637522 1.4394656 0.76734269
-0.97427845 1.4417499 0.76714051
1.6776956 1.455773 0.76844507
-0.93480039 1.48259 0.76030159
1.226874 -1.7954979 -0.14131767
-0.79095304 1.650984 0.76294565
1.3822606 1.7730384 0.76334435
1.2307557 1.8430488 0.76236194
1.2102211 1.8545129 0.76552737
-0.43706197 1.8838936 0.76819819
-0.42598689 1.8851426 0.76180929
1.0966307 1.9069021 0.76462179
-0.31289881 1.9368575 0.76185763
-1.6664624 -1.3069268 0.52574611
0.54003519 0.28337336 -0.14131752
-0.2080081 2.0006049 0.76583868
-0.083018973 2.0380609 0.76547873
0.61429405 0.10078729 -0.14131746
0.76862824 2.0440218 0.76830339
0.70881224 2.0534155 0.76378542
0.067251846 2.0635428 0.76082963
0.079670265 2.0655386 0.76020175
0.18085256 2.0879056 0.76862115
0.19450182 2.0904424 0.76869166
2.0112576 -2.4699798 0.54336655
0.38902178 2.1161554 0.76575041
2.1751714 -0.29962617 0.2933934
0.5705387 -4.0080986 0.77136517
-0.01510895 -3.9805174 0.7702046
-0.0024305582 -3.9857831 0.77491111
-0.091534607 -3.9703941 0.77875257
-0.060495555 -3.975281 0.77660531
-0.52415252 0.47094262 -0.14131783
-0.27970704 -3.9002795 0.77559048
1.0000362 -3.8832335 0.77682805
1.0284402 -3.8669496 0.77846444
1.0370195 -3.8581717 0.77279866
-0.51353073 -3.7577548 0.7793051
-0.5492714 -3.7299275 0.77027273
-0.66091299 -3.6621165 0.77242643
-0.79068959 -3.5431027 0.77663302
-0.81644011 -3.5157545 0.77960324
1.5293369 -3.4881516 0.77109343
-0.87163955 -3.4456797 0.7703777
1.6071768 -3.4049947 0.77767056
1.6386855 -3.3659368 0.77292144
1.6722213 -3.3263435 0.7705822
0.8119812 1.9220487 0.5165841
1.7476469 -3.2463729 0.77778864
1.7527934 -3.2374678 0.77354455
0.97329742 0.064010471 -0.14131758
1.8034055 -3.1812043 0.77480817
1.8155982 -3.1668243 0.77397823
1.8488115 -3.1120341 0.77333516
-1.1687948 -3.0770345 0.77171719
-1.2065643 -2.9953701 0.77850658
-0.096479058 -1.340395 -0.084875122
-1.2425886 -2.903301 0.77177149
1.9571536 -2.8663249 0.77741754
-1.3188157 -2.7282658 0.77595192
-0.74408531 1.1864908 0.18662776
2.0648234 -2.6165893 0.77621251
2.0676475 -2.6058226 0.77218384
2.0903895 -2.561583 0.77999592
-1.4373968 -2.4345088 0.77070206
-1.4481511 -2.4118683 0.77464008
-1.4697669 -2.3655217 0.77696645
-1.4921863 -2.3243623 0.77022409
2.2149007 -2.3062487 0.77678871
1.9241996 -0.072559014 0.0033187941
2.3012311 -2.1441457 0.77804613
2.3146594 -2.1039541 0.77300364
0.23477584 -0.8985464 -0.11745904
-1.6449827 -2.0271549 0.77956164
2.3517733 -2.0281248 0.77959096
-1.6587746 -2.0112009 0.77611065
1.6754196 0.83342803 0.14038813
-1.7575828 -1.6777444 0.77065259
2.4628751 -1.6588061 0.77607203
2.4611833 -1.6386621 0.77009857
0.5705387 -4.0080986 0.77136517
2.4542055 -1.3427503 0.77496207
-0.81644011 -3.5157545 0.77960324
-1.7431763 -1.189414 0.77774024
-1.7416716 -1.1678439 0.77368462
-1.7383857 -1.1159694 0.772798
2.439394 -1.0738921 0.77648765
0.59338468 -1.9419461 -0.14131743
2.4252388 -0.92926562 0.7786029
-1.7176192 -0.90610647 0.77537262
0.051252127 -0.74292058 -0.14131714
-0.13364598 -1.1261181 -0.14131726
2.4149947 -0.84185195 0.77149075
-1.712667 -0.83877665 0.77800018
-1.7093263 -0.81666172 0.77482384
-1.7033517 -0.754866 0.77386761
-1.7026839 -0.73747861 0.77598602
2.3959279 -0.61636788 0.77049488
2.3928113 -0.5422191 0.77760249
-1.6790903 -0.47953105 0.77516294
-1.6714224 -0.38518417 0.77712822
-1.669535 -0.36244735 0.77750903
2.3738503 -0.31189069 0.77480447
-1.6591361 -0.23711427 0.77225971
-1.6558338 -0.15871428 0.77614385
2.3615065 -0.1413627 0.778108
2.3535666 -0.11712274 0.77535939
2.3262477 -0.021318341 0.77448982
0.80374062 -3.7390537 0.38705891
-0.80186129 1.5718919 0.67125893
-1.5142703 -0.49264792 0.35167962
2.2886088 0.10883141 0.77201289
-0.959822 0.63486445 0.024765253
-1.5674819 0.15386069 0.77439743
-1.5542134 0.2002694 0.77479947
-1.5409362 0.24865468 0.77658403
2.24629 0.2582604 0.77137214
-1.5319651 0.27276579 0.77169299
-1.5259542 0.30344746 0.77873623
2.2311122 0.31147513 0.77088058
-1.5029917 0.37314585 0.77188891
-1.4800375 0.45663816 0.77221525
-1.477398 0.473564 0.77673626
-1.4717369 0.49753901 0.77759874
2.1707838 0.54585338 0.77175999
-0.12139349 -3.3170276 -0.007343784
0.029921591 -1.336004 -0.1413172
-1.3151904 0.8864252 0.77937138
2.3834796 -1.2993456 0.55169028
1.9907603 0.96321279 0.77311498
-0.7474491 -0.98818517 0.3152411
-1.1950591 1.1425897 0.77867299
-1.1462265 1.2359375 0.77840048
1.8393917 1.2696044 0.77387804
1.8363836 1.2759738 0.77781403
-1.0541601 0.25756022 -0.083308399
-1.0543309 1.3563504 0.77738565
1.744837 1.3829896 0.77698058
-0.99547231 1.4234483 0.77588969
1.5669158 1.1437782 0.24701384
1.6055626 1.5466632 0.7769134
1.5442702 1.6151454 0.77195513
-0.77424085 -3.1526713 0.27672264
1.5027642 1.662426 0.77033293
-0.75058377 1.7064439 0.7764712
0.25035685 -2.3712952 -0.14131761
1.4538618 1.7205255 0.77308452
1.3959404 1.7708614 0.77035439
-0.60486448 1.809557 0.77214646
-0.51121169 1.8533242 0.77376163
1.0254899 1.9459877 0.77453327
-0.80288589 -1.1070371 -0.14131773
-0.22014207 1.999891 0.77963722
-0.19848751 2.0112495 0.77584183
-0.14263304 2.0316613 0.77554768
0.761868 2.0481656 0.77461672
2.4628751 -1.6588061 0.77607203
0.62223911 2.073281 0.77112871
2.1444128 -2.2783971 0.62442136
0.21488658 2.0961051 0.7729516
0.20531824 -2.4594569 0.0051762462
0.24959686 2.1039305 0.77602786
0.77465504 0.1908232 0.31618878
2.099968 0.60745299 0.63836825
-0.14159565 0.96336925 -0.1413179
-0.36547619 -3.108736 -0.056295104
0.64597774 -3.9990408 0.78042674
0.67618865 -3.9935503 0.78086901
0.82447702 -3.9697509 0.78841984
0.21726042 -1.1783534 -0.14131707
1.7009994 -2.1474652 -0.1384322
-0.90100229 0.82160372 0.06700702
1.0189306 -3.8752682 0.78249216
-0.3611176 -3.8581383 0.78877091
-0.38512713 -3.843184 0.78864443
1.2326899 -3.746881 0.7854836
1.2492856 -3.7385771 0.7883715
1.7429192 -2.2380168 -0.016022887
1.3845979 -3.6512437 0.7805891
-0.73346049 -3.6183782 0.78977072
-0.78207237 -3.5600436 0.78624564
0.66598499 1.6466591 0.13504279
-0.80720645 -3.5280986 0.78199351
-0.82260132 -3.5090184 0.78005147
-0.86387134 -3.4629097 0.78171003
-0.90056765 -3.4224777 0.78395641
1.6066442 -3.413717 0.7888217
-0.92523223 -3.3934798 0.7829845
-0.95689118 -3.3584659 0.78474289
1.6573515 -3.351131 0.78155017
1.6822469 -3.3272071 0.78732312
1.4498305 -0.18350497 -0.14131777
1.5507939 -1.2302351 -0.14131778
-1.0396963 -3.2607586 0.78099775
0.44918472 0.72786379 -0.14131773
-1.1624202 -3.1018922 0.78089052
1.8552803 -3.106647 0.78237927
1.8714256 -3.0727761 0.78558975
-1.2209259 -2.9715042 0.78778404
-1.2191546 -2.9723449 0.78468043
-0.70646298 0.99563825 0.013642788
1.9355514 -2.9252286 0.7859984
-1.2682921 -2.8550191 0.78318715
-1.2753383 -2.8365996 0.78148681
-1.2982554 -2.7811604 0.78011966
2.0117502 -2.7443917 0.78126258
2.0085437 0.16196799 0.19737014
-1.3579965 -2.6482918 0.7874127
-0.72212201 -2.6552453 -0.13286354
2.1085129 -2.5292089 0.78957665
-0.91564357 -1.8012607 -0.1413179
-1.3661557 0.35973653 0.37453365
-1.4561368 -2.4105964 0.78994286
-1.5790629 -2.2082477 0.78710753
-1.6164856 -2.0936441 0.78961068
1.6442144 0.7044816 0.033633895
2.4119871 -1.9164925 0.78558701
0.47829768 -2.9328444 -0.14131787
-1.7677764 -1.6638521 0.78819954
2.4654963 -1.6588944 0.7810365
2.4693704 -1.6096244 0.78575933
2.4661124 -1.5544918 0.78019786
2.0026455 -2.4241281 0.48860601
-1.7442381 -1.2014027 0.7859863
2.4469228 -1.2037915 0.78566396
-1.7357522 -1.0643425 0.7888515
-1.7291074 -1.0059173 0.78078347
2.4336731 -0.97999185 0.78860134
2.4258587 -0.92165482 0.78154856
1.2988114 0.74424493 -0.14131796
2.4170008 -0.816697 0.78112596
2.4175489 -0.79682225 0.78629327
2.4092107 -0.70080286 0.78535247
-1.6955411 -0.60802275 0.78664398
-1.6800464 -0.44036016 0.78573376
-0.22696814 -2.0026896 -0.14131756
2.3789499 -0.31155598 0.78822356
2.3702672 -0.19209245 0.78225559
-1.6576978 -0.151842 0.78212905
2.3354726 -0.033040427 0.7890653
-1.6124971 0.012446407 0.78442496
-1.6061432 0.033534929 0.78381079
2.314712 0.040449135 0.78887784
2.3082132 0.056038562 0.78368539
2.2960837 0.10222682 0.78582668
2.2678051 0.2050036 0.78742313
-1.5466199 0.23554069 0.78121811
-1.5392003 0.27027524 0.78768295
2.2405565 0.29297268 0.78130174
-1.5060768 0.38160062 0.78546834
-1.4674094 0.51960373 0.780936
2.17788 -0.18945195 0.31684023
2.0797856 0.78028077 0.78660494
-1.3612618 0.79401141 0.78684336
-1.328963 0.86491764 0.78876626
-1.2665397 0.99494255 0.78427237
1.9744223 1.011973 0.78813285
1.9580148 1.0455372 0.78547382
1.9309455 1.1083469 0.78964984
-0.71427852 -2.9235249 0.057733551
1.9248416 1.117902 0.78528434
0.32742691 -0.73155427 0.66450095
-1.1885014 1.1572552 0.7809574
1.8880349 1.1877826 0.78138763
-1.153954 1.2228478 0.78027672
-1.1043806 1.3063805 0.78858757
-1.0783757 1.3342721 0.78546911
-1.0722075 1.3424432 0.7869091
1.7799175 1.3448086 0.78122765
1.748247 1.38469 0.78491187
-1.0086622 1.4139552 0.78399301
1.6991005 1.438998 0.78009748
1.6956044 1.4477876 0.78659922
-0.96862614 1.4607949 0.78465521
1.6800315 -3.2496386 0.67736745
1.6532995 1.4949389 0.78301531
-0.93033886 1.5042776 0.78345197
-0.38608339 1.770628 0.51495731
0.81925797 -2.6650553 -0.14131781
1.5708148 1.5943356 0.78639603
-0.80070996 1.655215 0.78458893
0.74147904 0.14179349 0.59373164
-0.73449719 1.7278042 0.7808454
1.2745255 1.8342447 0.78172016
-0.52959955 1.8492427 0.78100485
1.1535442 1.8907461 0.78193074
-0.72272789 -0.13052863 -0.14131777
-0.28677511 1.9640834 0.78747272
-0.23999923 1.9910576 0.78638548
-0.22706616 1.9995537 0.78765565
-0.61260355 1.6358603 0.48701549
-0.20661777 2.0105765 0.78468508
0.89544731 2.0261958 0.78250986
-0.087141633 2.046169 0.78513384
0.79529494 2.0485764 0.78967488
2.0013959 -1.5808456 0.059294514
0.063453905 2.0744267 0.78650737
0.40224576 -0.854316 -0.11367621
0.73042941 1.4747961 -0.011669189
-0.55119526 -1.6320764 -0.14131764
0.32665566 -4.0638227 0.79693365
0.12690917 -2.720793 -0.14131778
0.29571432 -4.0563974 0.79471195
0.25383493 1.1112792 -0.1413179
0.52203602 -4.0295029 0.79218501
0.10508996 -4.0159688 0.79011279
0.68369925 -4.0002356 0.79474664
-0.050910793 -3.985815 0.79135448
1.0571775 -3.0316567 -0.12600592
-0.12426642 -3.9753344 0.79825038
-0.11860029 -3.9717674 0.79024363
-0.19685003 -3.9570074 0.79147226
2.0421951 -2.0986907 0.34424454
-0.22942378 -3.1346364 -0.10637468
-0.3725805 -3.8567581 0.7978617
-0.39659157 -3.8428349 0.79937506
1.0942538 -3.839473 0.79862112
1.2652212 -3.7346656 0.79762781
-0.60149318 -3.7132983 0.79525626
1.3845229 -3.6615868 0.79702395
-0.76095915 -3.5929742 0.79811841
1.5528996 0.16589478 0.26847941
-1.1207088 -2.690891 0.33780864
0.0011387467 -1.992681 0.61997056
1.555705 -3.4788742 0.79926407
0.19739063 1.4502438 -0.072728544
-0.94191706 -3.3854003 0.79803711
-0.98377979 -3.335393 0.79531187
1.7493235 -3.2551882 0.79249543
-1.0799164 -3.2247992 0.79483724
1.782703 -3.220608 0.79679757
-1.1293352 -3.1706181 0.7982285
1.9512634 -2.8938537 0.79062766
-0.090093851 -2.7426093 -0.14131784
-1.281389 -2.84165 0.79947013
-1.0204978 -3.1317821 0.69761848
-1.3305287 -2.7264006 0.79991657
-1.3629034 -2.641434 0.79179037
-1.3726449 -2.6170001 0.79040062
2.1148975 -2.5148087 0.7908963
-0.86387134 -3.4629097 0.78171003
-1.4480355 -2.4387739 0.79583651
2.16591 -2.3964074 0.79872328
2.1699367 -2.3826187 0.79078835
2.1868424 -2.3588867 0.79360545
2.2079582 -2.3317196 0.79787856
1.8845716 -2.3038588 0.22562332
-1.5857259 -2.1878955 0.79163909
2.2920461 -2.1717653 0.79173613
2.326951 -2.0675275 0.79761422
2.338047 -2.0343137 0.79318845
-1.6898918 -1.9390712 0.79710883
-1.6664684 -0.58759689 0.72247243
-0.98844337 -0.030409873 0.67158914
2.4193547 -1.905609 0.79945642
2.4597743 -1.7829376 0.79068971
2.4736726 -1.6838856 0.79992926
2.4690855 -1.6015131 0.79010785
2.4677014 -1.57063 0.79872864
-1.7663897 -1.5482386 0.79676735
2.4644804 -1.518271 0.79007703
2.4594245 -1.4247177 0.79320872
-1.7581286 -1.4150596 0.79914206
-1.7556829 -1.3788354 0.79449761
1.1760398 -0.41179696 -0.14131755
-1.0220478 -0.30580118 -0.14131793
-1.7382892 -1.1025602 0.79330349
2.4419105 -1.1084117 0.79264444
-0.56291389 -1.9478717 -0.14131773
2.4376292 -1.0412616 0.7900697
2.4398224 -1.0350741 0.79681486
-1.7244397 -0.9018538 0.79234791
-1.723184 -0.88493782 0.79298097
-1.7232611 -0.87846029 0.7945379
2.4266691 -0.85322309 0.79680157
2.4265141 -0.8411684 0.79878694
0.019077472 0.16954121 -0.14131752
-1.7098614 -0.71233761 0.7982381
-1.7048492 -0.68615448 0.791987
2.4091568 -0.63415325 0.79822052
1.3690068 -0.11436488 -0.14131773
1.7503575 1.3530509 0.74440229
-1.6852578 -0.46436065 0.79291785
1.2858237 -1.669513 0.32797462
-1.6720932 -0.32709244 0.79104459
-1.6647773 -0.20921338 0.79150826
2.3535051 -0.09470959 0.79072553
2.3451262 -0.059767485 0.7943064
-0.45103896 -2.6573334 -0.14131792
-1.6110154 0.027995579 0.79183501
-1.5968981 0.078105047 0.79278213
-1.59394 0.08917132 0.79338342
0.89416975 0.28559536 -0.14131761
-0.7794733 0.86078048 0.07283216
2.2314894 0.34843948 0.79739898
2.2155132 0.40350425 0.79622424
-0.33010918 -0.74203181 -0.14131738
-0.97126591 0.53471714 -0.01985772
-1.4552071 0.58575845 0.79316932
1.2518123 -2.9623837 -0.047576502
2.1567974 0.62143612 0.79758483
-1.3797584 0.76378071 0.79788452
2.0874588 0.77090633 0.79513049
2.0091252 0.93916476 0.79166412
-1.2818216 0.96873748 0.7919572
-0.90389347 -0.35733116 -0.14131784
1.1203458 -1.1438065 -0.14131746
1.965252 1.0385574 0.79565978
-0.84036571 -1.9080459 -0.14131787
-0.11373376 1.0900922 -0.14131793
1.8993331 1.1782517 0.7948373
-0.32994065 -1.0284027 -0.1413174
-1.1018305 1.3146892 0.79609191
1.7917488 1.3393059 0.79290527
1.7781365 1.3592727 0.79841387
-1.2377503 -1.388005 -0.063622899
1.7393298 1.4023447 0.7948761
-1.0080607 1.4248668 0.79830694
1.6665853 1.4855374 0.79165179
1.5377268 1.6416351 0.79807109
1.4691076 1.7188855 0.79465878
1.410331 -2.2901216 -0.1413179
-0.74151462 1.7326164 0.79834121
0.92827785 -2.5536973 -0.1413178
-0.67935568 1.789853 0.79617804
-1.1632488 0.090338722 -0.0046461374
1.3479397 1.8099806 0.79832953
1.2568439 1.8476717 0.79038346
1.2657449 1.8488688 0.79930931
-0.3385725 1.9458435 0.79657739
0.88901931 2.0340474 0.79717386
-0.13704902 2.0400097 0.79178536
0.51741391 0.094047487 0.32848084
-0.094942093 2.0494213 0.79551959
1.0484442 -2.1320372 -0.14131767
0.14917795 2.0927384 0.79222542
0.0066938223 1.2657667 -0.14131799
0.43365562 2.1220438 0.79876435
-0.85086203 0.92294168 0.08069133
0.2701214 -4.0548167 0.80066472
0.44011053 -4.0502052 0.80092621
0.18950817 -4.042685 0.80719841
0.47176844 -4.0466108 0.80508298
0.76374704 1.1166856 -0.14131795
0.0057775117 -4.0029702 0.80148649
-0.18322553 -3.9680247 0.80568707
0.87415576 -3.9681621 0.801862
-1.3650734 0.65134728 0.6294471
-0.23042284 -3.9507442 0.80725825
0.94594234 -3.936414 0.80909497
0.13866083 1.1861162 -0.14131796
-0.30598193 -3.9029772 0.80574006
-0.39444372 -3.8493266 0.80757475
1.1701566 -3.7941914 0.80017328
1.2428958 -3.7533526 0.80573934
-0.59629446 -3.7221253 0.80416381
1.4005718 -3.6566174 0.80470258
1.3730445 -3.2231312 0.35347724
0.1452717 0.14631201 -0.14131746
-0.7720443 -3.4573565 0.63075233
-0.88380843 -3.4550748 0.80217451
-0.89415348 -3.4485235 0.80940795
-0.90704489 -3.4295352 0.80368173
-0.9211421 -3.4160295 0.80730438
-0.91740686 -3.4172497 0.80313295
0.34670269 1.9539127 0.39755353
1.7777547 -3.2311544 0.8036027
1.8406092 -3.1609812 0.80475879
-1.1719141 -3.1080918 0.80750024
1.9350538 -2.9475889 0.80610657
-1.306818 -2.7918305 0.80885136
-1.3057727 -2.7878964 0.80289185
2.0374155 -2.7054303 0.80047244
-1.3463892 -2.6918342 0.80251306
2.0423346 -2.6963191 0.80259603
-1.3531746 -2.682076 0.80831039
2.0481527 -2.6865363 0.80604964
-1.4142536 -2.5385566 0.80861533
-1.4186023 -2.5236778 0.80429476
2.1281734 -2.4949915 0.80185843
-1.4622977 -2.4094694 0.80163336
2.2053666 -2.3416111 0.8062039
1.51825 -3.3891821 0.61798561
2.2910671 -2.1748269 0.80262911
2.3198228 -2.088949 0.80713701
-1.6317217 -2.0472019 0.80767977
-0.61114466 -0.035897955 -0.14131773
-0.52003944 -3.4966149 0.37079814
-1.7645646 -1.7722001 0.80009854
-0.21984082 -0.27458906 0.40097499
-1.7707771 -1.6151185 0.80193275
-1.7676725 -1.5628874 0.80645967
-1.7623236 -1.4803071 0.80190426
1.4555374 -1.8002958 -0.1413178
-1.7593902 -1.4296404 0.80837703
-1.748202 -1.2558146 0.80067801
-0.02808208 1.938874 0.52320367
-1.7405236 -1.1770847 0.80073363
-1.7416832 -1.0081866 0.80778331
2.4402096 -0.9737891 0.80012023
2.4345939 -0.91252983 0.80392563
2.0734591 -0.047389269 0.48488742
-1.7191309 -0.79809994 0.80186987
-1.7179754 -0.74921399 0.80952775
-1.7149193 -0.71872401 0.80880082
-1.7074741 -0.64173365 0.80760521
-1.7038599 -0.63503361 0.80051088
-1.7056608 -0.61691141 0.80860275
-1.6969107 -0.54661429 0.80291152
2.403687 -0.50924456 0.80967575
2.4030154 -0.49951768 0.80998927
2.3957417 -0.44198638 0.80405515
0.60647607 -3.5722518 0.17867054
2.3818974 -0.25093463 0.80447769
-0.98673111 -0.36022341 -0.1413179
-1.6713207 -0.20228584 0.80976731
-1.6673518 -0.16605218 0.8051607
-1.6678329 -0.15401402 0.80834657
-1.6610138 -0.13199325 0.80089837
-1.6533004 -0.10420635 0.80170578
-1.6155822 0.030327022 0.80470067
-1.5966105 0.093732201 0.80317843
-1.5664111 0.19928068 0.80403692
2.274884 0.2074661 0.80654001
-1.5364337 0.30778986 0.8075434
2.2251339 0.38365048 0.80614388
-1.4242086 0.67444122 0.80488598
-1.3968549 0.73301983 0.80479163
-1.1221058 -3.1175332 0.71465141
-1.3671124 0.79700166 0.80502623
2.0777807 0.80453843 0.80949527
-1.3034927 0.93099785 0.80217779
-1.2974809 0.94611728 0.80478472
2.0038252 0.95919591 0.80138922
1.9601735 1.0536419 0.80024445
1.9340007 1.1151028 0.80512518
1.891294 1.20578 0.80755615
-0.60535997 -1.0553651 -0.14131759
-1.1478835 1.2583374 0.80627167
-0.083191469 -1.7513409 -0.14131741
1.810461 1.3283539 0.80825001
-1.0830231 1.3403498 0.8015281
1.7577538 1.3901464 0.80801833
-1.0342666 1.4005244 0.80672479
-1.3992066 -1.1663516 0.15630035
-0.98324651 1.4583263 0.80492353
-0.9782812 1.4651315 0.80640143
1.5236413 -2.4458053 -0.14131799
1.6351601 1.5331508 0.8064785
1.5571547 1.6269679 0.80942255
-0.70305413 1.7830836 0.80797189
1.4073794 1.7867963 0.80586714
0.74240959 1.6863947 0.18562074
-0.58699036 1.8356998 0.80226403
1.2641271 1.8532215 0.80531919
-0.42080015 1.913041 0.8045854
0.39168626 -2.3397818 -0.14131761
-0.63637626 0.17403218 -0.1413178
-0.28097373 1.9749684 0.80126917
1.0045327 1.9754332 0.80739832
0.038596362 -0.029409677 -0.14131741
-0.2015101 2.0226212 0.80313474
-1.0158869 0.19856168 -0.14131799
-0.614335 -0.9797616 -0.14131758
0.70372915 2.0748007 0.80898416
2.1701224 -1.9721526 0.4317193
0.38090315 -2.5603023 -0.1413177
0.25491685 2.1191175 0.80768657
0.26884273 2.1214736 0.80721378
0.33791727 2.134295 0.80650765
0.34567642 2.1340332 0.80260473
0.38815999 2.1350009 0.80764127
0.30582619 -4.0685582 0.81206191
0.43876457 -4.0607285 0.81848514
0.98836803 -2.1732426 -0.14131767
0.54529428 -4.0405407 0.81863105
0.53850853 -4.0399971 0.81549227
0.0013078526 -4.0126648 0.81955338
-0.12280768 -3.9830699 0.81097096
-0.21850257 -3.9603937 0.81085598
0.93036038 -3.9494686 0.814776
-0.29720855 -3.9158134 0.81749898
-0.33621177 -3.8914003 0.81710321
-0.39564034 -3.8520188 0.81303036
1.0844363 -3.8574319 0.81773585
1.1482387 -3.8182983 0.81733215
-0.46664774 -3.8076725 0.8124671
2.1324372 -1.5479989 0.2578977
1.1907502 -3.7920084 0.81671876
-0.53359175 -3.7663505 0.81270939
-0.66664088 -3.6848502 0.81418502
-0.69462192 -3.6667342 0.81294447
-0.74486899 -3.6263218 0.81840312
-0.7956059 -3.5625966 0.81085575
0.62754381 1.9578855 0.51657039
-0.23999923 1.9910576 0.78638548
1.5463674 -3.4975905 0.81047839
1.6143742 -3.4260502 0.81775099
1.6318594 -3.4032969 0.81363404
1.6556238 -3.3793912 0.8176775
0.99064839 -3.8676782 0.74287027
-1.0666616 -3.2583373 0.81980926
-1.0768526 -3.23961 0.81022149
1.7824235 -3.2358282 0.81726426
1.8159776 -3.1978772 0.81720895
-1.1613671 -3.142844 0.81673652
-1.2673626 -2.8914628 0.81510419
1.9908346 -2.8302245 0.81687266
-1.5421798 -0.36763972 0.44482833
-1.5448143 -0.29920912 0.46267939
2.0480778 -2.6917458 0.81082451
-1.3754705 -2.6380453 0.81621033
2.0827534 -2.6207118 0.81934124
2.0819283 -2.6142192 0.81138134
-1.3972718 -2.589128 0.81847137
2.1489429 -2.4638343 0.81888324
2.0366154 -0.94145083 0.021021359
-1.5173972 -2.326035 0.81333113
2.4519119 -1.330621 0.73178118
-1.5646796 -2.25261 0.81077302
-1.588052 -2.1810894 0.81668901
2.0349426 0.50319779 0.35453933
2.2950253 -2.1631379 0.81389338
0.26090479 -3.0820341 -0.14131793
-1.6645056 -1.9555022 0.81376517
-1.724085 -1.8713199 0.81101519
-1.7460184 -1.8321055 0.81655371
-1.7604514 -1.8110111 0.81529307
-1.7630532 -1.7960582 0.81070256
-1.7733082 -1.7702682 0.81417608
2.4667444 -1.5810213 0.81959701
-1.7558261 -1.4151247 0.81275368
-1.742304 -1.282161 0.81317484
2.4402268 -1.2440076 0.81312966
2.4365649 -1.2241027 0.81575561
2.435009 -1.2130805 0.81846112
2.4366698 -1.1792563 0.81579018
-1.7366836 -1.0945477 0.81189799
-1.7388577 -1.0769875 0.81330043
-1.743052 -1.0379288 0.81517881
-1.7445424 -0.96891797 0.814978
-1.7193754 -0.72427356 0.81812316
2.4225502 -0.71253461 0.81451982
2.4160371 -0.65546894 0.81028819
-1.7001117 -0.51096272 0.81802475
-1.6936961 -0.46493724 0.81268024
2.4031765 -0.45862275 0.81834209
-1.6924016 -0.41768289 0.81966442
2.3957965 -0.40614516 0.81117249
0.79870355 0.34030703 -0.14131761
2.3851545 -0.26228169 0.81142259
2.3811665 -0.17058927 0.81385922
2.3803265 -0.14776558 0.81996775
2.3691862 -0.12091015 0.8111577
-0.62970769 -1.1619942 -0.14131762
-1.6645088 -0.11854351 0.81903195
1.96779 -1.9620441 0.17014571
2.3663425 -0.10857786 0.81270176
2.350208 -0.053378243 0.8112303
-0.53583694 -0.14863184 -0.14131765
-0.80033922 1.1406991 0.19979715
-1.585822 0.15403752 0.81953961
1.6704371 -2.3110342 -0.063247025
2.26963 0.23792431 0.8147034
2.2506118 0.30397114 0.81364882
-1.5254869 0.35077974 0.81121504
2.2361431 0.35659888 0.81449533
-1.5067152 0.42224979 0.81591314
-1.5050677 0.43020827 0.81752336
2.1998954 0.48799548 0.81559181
-1.4787767 0.52101892 0.81471437
2.1899796 0.52299941 0.81129831
-0.89735252 0.77679294 0.037455093
-0.8119061 -1.4433904 0.46332011
2.1789587 0.57390767 0.81487185
2.1626863 0.62034959 0.81116277
0.67095453 -3.6091936 0.22409323
2.1392856 0.67266101 0.81248558
-1.4243623 0.68444276 0.81697631
2.1130188 0.73618639 0.81950629
2.1079798 0.74573016 0.81780988
1.9175062 0.72924435 0.35055929
2.0866709 0.79157907 0.81695634
-1.2748344 1.0022018 0.81358528
1.9888232 1.0066723 0.81829274
0.40987301 -0.72243166 -0.14131702
1.9081833 1.1780524 0.81317931
1.9000041 1.1911267 0.81007642
-1.1747667 1.2157172 0.81597823
-1.1273648 1.3018904 0.81959623
-1.0995998 1.3273131 0.81016171
1.7621276 1.3890295 0.81361014
-1.034848 1.4023037 0.81016159
-0.013069808 0.50682878 -0.14131767
-0.95087707 1.5007893 0.81189501
-0.89288932 1.5731697 0.81921452
1.5805844 1.605029 0.81720769
0.89449626 -0.14056733 -0.14131746
1.4653828 1.7393634 0.81672788
1.4016365 1.7935287 0.81264085
0.42799878 1.945376 0.39996424
1.3848064 1.8004405 0.8110866
-0.60349476 1.8335216 0.81125426
-1.402458 0.35248691 0.47397393
1.1513929 1.9085832 0.81004411
-0.42306101 1.9208946 0.81947702
-0.72280121 -2.9103613 0.055241495
-0.24932557 1.9982346 0.81294924
-0.18619147 2.0400352 0.81982279
0.89585912 2.0412097 0.81592751
0.83530456 2.0532074 0.8168624
0.022992969 2.0809216 0.81737244
0.47031021 2.1200426 0.81036234
0.29669175 2.1305075 0.81561089
0.38613778 -4.0733137 0.82288039
-1.3321512 -1.9643754 0.27165633
0.43572256 -4.0679245 0.82980102
0.19259931 -4.0529981 0.82376587
0.48373523 -4.0542512 0.82204366
1.3692403 -3.3991115 0.40043145
0.1327326 -4.0436401 0.82802194
0.55666161 -4.0406175 0.82246083
-0.0071258359 -4.011919 0.82113093
0.77382886 -4.0019078 0.82693911
0.81731117 -3.9933813 0.8265084
0.95167595 -3.9442544 0.82718533
-0.35218379 -3.8885531 0.82830203
-0.43486536 -3.8357158 0.82573897
1.4208452 -2.7663894 -0.05129452
1.1726466 -3.8109555 0.82935184
-0.60070318 -3.7322664 0.82461607
2.0051315 0.51841593 0.3251043
0.97196668 -1.535241 -0.14131743
-0.63670117 -3.7097325 0.82424754
1.3327161 -0.44542462 -0.14131765
-0.7352156 -3.6443808 0.82792038
1.5474849 -2.1627519 -0.14131795
1.5030676 -3.5573339 0.82533914
0.58735079 -3.2903633 -0.084964961
-0.89818805 -3.4532866 0.82219452
1.6589817 -3.3818407 0.82625091
1.6694363 -3.3657179 0.82033074
2.0571454 0.70061409 0.63783181
-1.0252374 -3.3072619 0.82174408
-1.040796 -3.2928448 0.82640815
-1.0773581 -3.2492332 0.8241151
-1.0870328 -3.2354069 0.82039505
0.93550628 -1.1352673 0.075138047
-1.1275648 -3.1908851 0.82306242
1.9067338 0.86009443 0.46854877
-1.2290983 -2.9942071 0.82687098
-1.2605187 -2.9207487 0.8273735
1.9548163 -2.9268909 0.82971573
-1.2765743 -2.8795657 0.82423294
2.000309 -2.8194275 0.82736319
2.0122941 -2.7925572 0.82810926
2.0234218 -2.7658887 0.82717085
-1.3389833 -2.7356839 0.82711869
-1.3986495 -2.5978334 0.82960552
2.1143556 -2.5545409 0.82574534
-1.4313928 -2.5150864 0.82435668
0.55843288 -3.4845433 0.089266993
0.82604957 -3.3221521 0.0029296353
2.1512063 -2.4672089 0.82623303
-1.4792033 -2.3957 0.82520646
-1.5648 -0.014452986 0.64823961
-1.5697339 -2.2372556 0.82084322
2.2813561 -2.2041788 0.82915223
0.55380034 -3.9505367 0.66747934
-1.7254603 -1.8537771 0.82337832
2.4423351 -1.8365526 0.82827121
2.4793828 -1.7651646 0.82328713
1.3049786 -2.7369092 -0.14131799
1.5798366 1.5405943 0.72646731
-1.7611225 -1.5431285 0.82342356
2.4563208 -1.5456573 0.82988608
-1.7577711 -1.5385561 0.82757807
-1.7564094 -1.5068178 0.82500225
1.5599705 -0.4834277 -0.14131778
2.4531357 -1.4500828 0.8218298
-1.7422782 -1.3524253 0.82323885
-1.738391 -1.3383263 0.82680231
2.4349685 -1.2693534 0.82402641
2.4376967 -1.2170811 0.82435191
-1.7352202 -1.1817417 0.82298583
-1.7356448 -1.1645522 0.8210634
-1.7484368 -1.0588051 0.8289271
-0.33311611 1.6044993 0.24442849
-1.025439 0.48241705 0.0095216781
2.4481874 -0.8606813 0.82880402
-1.7384244 -0.84153241 0.82513374
2.4361541 -0.82264656 0.82126707
1.8128428 -2.2675784 0.10115514
2.431716 -0.78293753 0.8224057
2.4365814 -0.77712268 0.82956147
-1.7116847 -0.58985353 0.82854396
-1.7071587 -0.57930112 0.82011926
-1.7011981 -0.49541628 0.82388586
1.8077173 -2.7866774 0.38574219
-1.2983389 -1.4621428 0.040777571
2.3660948 -0.091232903 0.82409972
-1.6397334 -0.025709365 0.82417125
2.3387244 0.0032348447 0.82217747
-1.6157596 0.057188276 0.82421911
2.3101599 0.10592488 0.82301098
1.6722213 -3.3263435 0.7705822
-1.5690979 0.21662916 0.8229568
2.2774446 0.22606024 0.82571173
-1.560825 0.24491039 0.82274204
-1.5409052 0.3215327 0.82828254
-1.471876 0.56977558 0.8297618
-1.4647014 0.58794439 0.82210147
-1.4481944 0.64296144 0.82824159
-1.4418226 0.65418059 0.82538027
-1.4382697 0.66205418 0.82567787
-1.4267404 0.68242919 0.82058805
0.70394707 1.0772989 -0.1413179
-1.3785093 0.7875883 0.82261217
2.0741863 0.82165867 0.82016248
1.4637029 -1.4571003 0.23943216
1.969779 1.0505098 0.82082617
-1.1850289 1.2059203 0.82673752
1.8932232 1.2193018 0.82612777
1.8886839 1.2228923 0.82046747
-1.1508983 1.2725561 0.82806385
1.8342259 1.314644 0.82801455
1.7905242 1.3612461 0.82138693
-0.13537627 -3.5485489 0.19865894
1.7501324 1.4095204 0.82248795
-1.032123 1.4195565 0.82991564
-1.0218403 1.4299226 0.82775462
-1.0153246 1.4365178 0.82642221
-0.98978686 -2.4834681 0.078904279
1.6967204 1.4736927 0.82441163
1.6399885 1.5393466 0.82297164
0.30037093 -0.90908897 -0.130713
-0.88845831 1.5837449 0.8268429
-0.87111193 1.6026713 0.82521296
-0.78435194 1.7049414 0.8277235
-0.73415715 1.7610239 0.82593572
-0.99901193 -0.98181546 -0.14131787
1.2685218 1.8629138 0.82492495
1.2277194 1.879988 0.82168669
1.2254241 1.8836644 0.82603991
-0.44869941 1.9120629 0.82431316
-0.21973665 2.0237331 0.82837355
-0.19992015 2.0336595 0.82393324
-0.051022653 -3.6695743 0.29398462
-0.16536207 2.0520153 0.82992572
-0.8467918 1.2015393 0.28380179
-0.10635053 2.0604119 0.82453007
0.80442452 2.0650382 0.82998765
0.55257636 2.1109307 0.82500643
1.2474792 -0.97642863 -0.14131755
0.24833319 1.009545 -0.14131784
0.38332659 -4.0818119 0.83649826
0.24287336 -4.0711327 0.83773887
-0.090597019 -0.85530603 -0.14131723
0.19195284 -4.0619025 0.83918941
0.13470337 -4.0506873 0.83939117
0.10143855 -4.0426536 0.83691585
0.11579165 -4.0435057 0.8335197
0.55329913 -4.0465922 0.83158517
0.57028252 -4.0462661 0.83655518
0.58705539 -4.0447354 0.83939546
0.079704836 -4.0345478 0.83042109
-1.3709717 0.62573898 0.61427993
0.65964121 -4.0281982 0.83473766
0.8253327 -3.9981649 0.83729982
-0.24125631 -3.9603593 0.83319956
-0.3052192 -3.9233363 0.83733726
1.1432457 -3.8330054 0.835949
1.156528 -2.9273417 -0.14131799
1.3058805 -3.7324667 0.8336643
1.4684892 -3.6023362 0.83348864
-0.83354723 -3.5381286 0.83678538
1.5618757 -3.4959917 0.83234417
1.5773718 -3.4814658 0.83643913
0.28360742 0.34087795 -0.14131753
0.70774066 -2.9169693 -0.1413179
1.6114526 -3.439023 0.83103263
1.1230705 -3.5815578 0.41499847
1.672809 -3.3700716 0.83154267
1.6587467 -2.2474992 -0.12480122
-1.0973648 0.47393698 0.083332151
-1.1060944 -3.2230849 0.83338195
-1.1686521 -3.1488075 0.83827949
1.9427956 -2.9591184 0.83396977
-1.2779608 -2.8869934 0.83419627
1.9771563 -2.8831818 0.83715129
-1.2833093 -2.8739629 0.83379191
-1.3073541 -2.8213391 0.83752227
-1.3199868 -2.7885871 0.83472633
2.0458212 -2.7200112 0.8326807
2.0513041 -2.7120614 0.83713883
2.0620306 -2.6846128 0.83458328
-1.3911372 -2.6163054 0.83033228
1.1007798 -3.76336 0.68348712
-1.5179102 -2.3438559 0.83487946
-1.2605187 -2.9207487 0.8273735
2.253408 -2.2877662 0.83458138
-1.5637103 -2.2558641 0.83314198
2.2765687 -2.2185211 0.83203244
-1.6078659 -2.1206367 0.83579743
2.2381096 -0.47106731 0.39647833
2.32864 -2.0629425 0.83460891
0.19665937 -0.36807227 -0.14131722
-1.6348717 -2.0379078 0.83557606
2.3661714 -1.9507391 0.83111227
-1.6636606 -1.9496679 0.83156079
2.4337573 -1.8430173 0.83306599
-1.7648684 -1.6814778 0.83779383
-1.7647431 -1.6391652 0.83193535
2.4551225 -1.6024948 0.8391158
-1.7447536 -1.4341621 0.83135247
2.4335377 -1.3558986 0.83751523
-1.7391531 -1.2051615 0.83433181
2.4584906 -1.0381233 0.83343202
-1.7533211 -1.008333 0.83031803
-1.5330751 -0.56773299 0.38895878
0.8862164 -3.4329042 0.129941
2.4576063 -0.96151984 0.83150613
2.4565115 -0.93336797 0.83132148
2.4536037 -0.85204548 0.8366074
2.4513049 -0.84263122 0.83553529
-1.7329073 -0.77573085 0.83053303
2.4396613 -0.73882657 0.83971572
2.4212871 -0.61637777 0.83028924
-1.7067312 -0.49333861 0.83736593
-1.7020526 -0.43685526 0.83833516
2.4075739 -0.43057108 0.83418047
2.4046581 -0.4079963 0.83170682
-1.6838461 -0.24304962 0.83607733
-1.6833227 -0.21418206 0.83932287
2.3827484 -0.13193825 0.83688277
2.3669546 -0.081457302 0.83298266
-1.6565561 -0.069654897 0.83424354
-1.6377403 0.0017122962 0.8387602
-1.6099795 0.090427175 0.8336454
-1.5748111 0.21424596 0.83528668
-1.475132 -0.21195263 0.31795177
-1.4055027 -1.1657557 0.68126094
2.259304 0.30673769 0.83694547
1.923939 -2.4725604 0.36756784
-1.5375897 0.34053782 0.833646
2.2485158 0.34660155 0.83800775
-1.5203274 0.39802817 0.83211768
-1.5044727 0.45371917 0.83276594
-1.4831071 0.52699929 0.83148134
-1.4809023 0.53647321 0.83191538
-1.480153 0.54978395 0.8392933
-1.4508857 0.64055681 0.83218163
-1.4311204 0.68545043 0.83511639
2.0950358 0.7866326 0.83232433
-1.3253548 0.91266066 0.83558488
2.0022721 0.99585974 0.8397066
1.9756074 1.0508782 0.8359279
1.9639175 1.0741339 0.83327538
-1.1433742 1.2941461 0.83605635
-0.89576155 1.5817182 0.83585513
-0.87537336 1.6081526 0.83981001
0.39600152 -2.2855058 -0.14131758
1.9448729 -1.9997594 0.15265575
-0.62066543 1.8388504 0.83333331
1.2572311 1.8762558 0.83841956
0.31437403 -3.8864601 0.49820298
-0.4890174 1.9004019 0.8356508
-0.44196981 1.9214489 0.83488715
-0.41604918 1.9309262 0.8309167
-0.31028196 1.983309 0.83769071
-0.87813562 -1.7906653 -0.14131787
1.9977448 0.70230746 0.49019727
0.832546 2.0616775 0.83444899
-0.027714605 2.0795031 0.8348611
0.68957716 -1.6347687 -0.14131732
0.080052584 2.0978775 0.83174837
0.59459364 2.1087236 0.8379038
1.0981578 -3.4623585 0.26659447
0.26366627 2.1348846 0.83908516
0.28004649 2.1357911 0.83443004
0.29930419 2.1394765 0.83464241
0.46710902 2.131079 0.83344376
0.35325068 2.150017 0.83527499
0.22088867 -4.0703893 0.8439008
0.43239719 -4.0782752 0.84641969
0.6046024 1.574002 0.056853153
0.48696145 -4.067616 0.84594947
1.799216 0.33052725 -0.0065835416
0.57365769 -4.0486255 0.84168756
0.60255313 -4.0423288 0.84032327
-0.059631079 -4.0178566 0.84902018
0.7336694 -4.0174265 0.84040755
-1.3405195 -0.70163786 0.057485282
-0.13874832 -3.9982066 0.84220815
0.96039981 -3.9475052 0.84085912
0.9914968 -3.9287038 0.84109628
1.7015367 0.051636867 -0.14131798
-1.2538756 -2.6142673 0.53892469
0.56080163 -2.1448736 -0.14131752
-1.4225283 0.6048317 0.71920335
-0.38684452 -3.8801622 0.84908795
-1.4406327 0.38362738 0.60632062
-1.5936224 -1.1928325 0.41089153
1.1719325 -3.8241148 0.84966075
1.3031188 -3.7386642 0.8408699
-0.64251202 -3.7218485 0.84921813
-0.65462381 -3.7119255 0.84537476
1.4616511 -3.6155491 0.84102297
1.5089906 -3.5649054 0.844926
1.5684358 -3.4953327 0.84161729
1.5742602 -3.4935346 0.84818423
1.5805061 -3.4835587 0.84417588
-0.9198426 -3.4417968 0.84036303
-0.28577906 -3.81775 0.6504395
1.7791276 -3.2623696 0.84859788
1.8011273 -3.2325516 0.84178436
-1.1475184 -3.1868157 0.84868002
1.8552089 -3.1692622 0.84157658
1.8886762 -3.095176 0.84455717
-0.2167691 -3.1505291 0.37395287
-1.2122223 -3.0581353 0.84940428
1.9479855 -2.9555318 0.84192342
-1.2657402 -2.9251728 0.84295332
-0.90112692 -0.93600386 -0.1413178
2.0497925 -2.7264442 0.84746563
0.52674496 -2.8917222 -0.14131787
-0.76321584 0.48695067 -0.14131796
0.81925797 -2.6650553 -0.14131781
2.148932 -2.4927509 0.84280783
-1.4884475 -2.3916943 0.84054166
-1.5288022 -2.3422842 0.84724689
-1.5794096 -2.2079265 0.84521168
-1.5919815 -2.1694632 0.84897971
2.3389628 -2.0322313 0.84565395
2.3488035 -2.0028043 0.84412497
2.3707666 -1.9371256 0.84068137
2.3734672 -1.929152 0.84841514
2.4081075 -1.8675845 0.84318686
